-1.780043 1.292014 3.937023
-1.954460 0.938270 4.323761
-1.866468 0.946796 4.223397
-1.544593 1.162496 3.758930
-1.544593 1.162496 3.758930
-1.534799 1.161408 3.749731
-1.629099 0.893445 3.992340
-1.329549 1.462604 3.354272
-1.235609 1.667711 3.137645
-1.316628 1.441559 3.348149
-1.344029 1.362241 3.430352
-1.290640 1.487438 3.299042
-1.222492 1.663132 3.126686
-1.340232 1.337751 3.435460
-1.485453 0.909248 3.830170
-1.293898 1.420525 3.340837
-1.272283 1.461655 3.291597
-1.272283 1.461655 3.291597
-1.332621 1.281681 3.454860
-1.275431 1.436377 3.307773
-1.269904 1.439910 3.303859
-1.263156 1.447142 3.290720
-1.246416 1.465688 3.264655
-1.258854 1.421573 3.300514
-1.245042 1.452730 3.269401
-1.245825 1.436284 3.280033
-1.233027 1.460469 3.252922
-1.273405 1.327731 3.367255
-1.236873 1.426336 3.272825
-1.229644 1.429158 3.263044
-1.221433 1.451641 3.242994
-1.217454 1.459767 3.239015
-1.234255 1.393122 3.289853
-1.234255 1.393122 3.289853
-1.380339 0.956376 3.689270
-1.210332 1.398113 3.259659
-1.295414 1.089581 3.521890
-1.199672 1.303361 3.303946
-1.171087 1.380060 3.231055
-1.123960 1.506145 3.112448
-1.183368 1.297423 3.288367
-1.183368 1.297423 3.288367
-1.104603 1.501139 3.089953
-1.138400 1.392203 3.188231
-1.141717 1.352173 3.211233
-1.220068 1.106178 3.430758
-1.132105 1.342795 3.208483
-1.125501 1.353971 3.195662
-1.079515 1.503064 3.063962
-1.079515 1.503064 3.063962
-1.189983 1.123814 3.392720
-1.079046 1.472696 3.078198
-1.117519 1.343617 3.194384
-1.117980 1.337396 3.195476
-1.108963 1.339812 3.184476
-1.108963 1.339812 3.184476
-1.055329 1.508217 3.033650
-1.172309 1.125493 3.369238
-1.052003 1.499815 3.031864
-1.083142 1.389607 3.128490
-1.100294 1.326555 3.180625
-1.078230 1.384931 3.127465
-1.060103 1.422259 3.088422
-1.069357 1.383615 3.117129
-1.080809 1.334423 3.156075
-1.080809 1.334423 3.156075
-1.071152 1.343428 3.141405
-1.071152 1.343428 3.141405
-1.014317 1.501865 2.990772
-1.061529 1.321239 3.143895
-1.003047 1.513284 2.973355
-1.052719 1.337070 3.125618
-1.005062 1.489226 2.987062
-1.052254 1.324617 3.130688
-1.003257 1.480951 2.989142
-1.046165 1.320094 3.128214
-1.035675 1.356171 3.097604
-1.065914 1.244583 3.193035
-1.104702 1.107967 3.307540
-0.991343 1.489738 2.976734
-0.991343 1.489738 2.976734
-1.101009 1.102476 3.306781
-1.038905 1.321282 3.120835
-1.097411 1.082543 3.312022
-1.097411 1.082543 3.312022
-1.086182 1.119021 3.280325
-1.075786 1.133146 3.260948
-1.100847 1.033191 3.343214
-1.007990 1.345048 3.072763
-1.016212 1.312971 3.100041
-1.012107 1.303912 3.101094
-1.053556 1.047482 3.283890
-0.987620 1.294001 3.080724
-0.987620 1.294001 3.080724
-1.051284 1.040568 3.282750
-0.968388 1.328511 3.038448
-0.966287 1.333779 3.033848
-0.963707 1.329195 3.035567
-1.038936 1.042851 3.271894
-1.038936 1.042851 3.271894
-0.965062 1.286252 3.058390
-1.011355 1.107653 3.211895
-1.008886 1.099728 3.210132
-1.008886 1.099728 3.210132
-0.946486 1.332536 3.016860
-0.944072 1.297150 3.032562
-0.944072 1.297150 3.032562
-0.943432 1.209260 3.079490
-0.914850 1.313005 2.991156
-0.984714 1.028709 3.223016
-0.908283 1.304659 2.990237
-0.903298 1.322538 2.975369
-0.929202 1.195924 3.069771
-0.972507 1.017425 3.214488
-0.938408 1.136375 3.112657
-0.921930 1.193783 3.064948
-0.931595 1.118112 3.116722
-0.931595 1.118112 3.116722
-0.923547 1.139427 3.097051
-0.923547 1.139427 3.097051
-0.923538 1.120525 3.104642
-0.896997 1.062287 3.109741
-0.886364 1.094267 3.083173
-0.856553 0.997670 3.100829
-0.749986 1.488422 2.719458
-0.833356 1.004343 3.077837
-0.827173 0.988308 3.075813
-0.731000 1.137055 2.892089
